26.025 16.5976 -3.56256 0.706901 0.705411 -0.0481193
26.0672 16.5398 -2.42821 0.726888 0.685098 0.0416314
26.0265 16.5133 -1.41759 0.668841 0.740811 0.00125279
25.9955 16.5625 -0.31481 0.732407 0.679626 -0.0406999
25.9755 16.6053 0.715874 0.760347 0.64938 -0.0128599
25.9397 16.6037 1.69317 0.719335 0.691481 0.0663736
25.9051 16.6159 2.67623 0.710026 0.70271 0.021781
25.8908 16.5644 3.40504 0.711958 0.700361 0.0499659
25.1449 17.1846 3.24201 0.542724 0.83929 0.0320353
25.1813 17.2116 2.22229 0.588141 0.808359 0.0251194
25.2313 17.2161 1.11408 0.5849 0.810843 0.0194514
25.2898 17.2167 0.045189 0.59508 0.801344 0.0311456
25.302 17.1438 -1.19183 0.582147 0.812401 -0.0328466
25.345 17.1404 -2.48368 0.625044 0.779616 0.0383048
25.3223 17.1923 -3.42751 0.540908 0.840023 -0.0125208
24.5072 17.6792 -3.61158 0.464875 0.885095 0.0166542
24.525 17.6339 -2.48409 0.429245 0.901788 0.0486471
24.5048 17.6111 -1.28804 0.408479 0.91176 -0.0425864
24.4723 17.6633 -0.196577 0.399161 0.915562 -0.0215504
24.4036 17.6798 1.01849 0.401241 0.915931 -0.000189742
24.3473 17.6702 2.24412 0.409242 0.911942 0.0261021
24.321 17.6606 3.2939 0.432542 0.900372 0.0426224
24.3226 17.6476 3.47352 0.45235 0.890444 0.0456979
23.441 18.004 3.40896 0.265602 0.963637 0.0218286
23.4618 18.0005 2.41345 0.331508 0.94288 0.0207471
23.4932 17.9962 1.43343 0.263311 0.964291 -0.0237761
23.535 17.983 0.365995 0.250279 0.968131 -0.00382282
23.6036 17.9663 -0.868103 0.291708 0.956503 0.000942113
23.652 17.9769 -1.89193 0.358632 0.93333 0.0166615
23.6531 18.0394 -2.88597 0.35666 0.933372 0.0241258
23.6378 18.035 -3.63101 0.343722 0.938771 -0.0233862
22.7381 18.2894 -3.36805 0.19602 0.979629 0.0274508
22.7346 18.2463 -2.11622 0.231169 0.972781 0.0139327
22.6742 18.2232 -1.10154 0.227265 0.972833 0.043911
22.6189 18.2076 -0.116502 0.221694 0.975066 0.00979797
22.5926 18.2102 1.28219 0.208612 0.97793 -0.0116088
22.5419 18.2329 2.60915 0.222047 0.974757 -0.0194545
22.5141 18.2372 3.44808 0.216611 0.976157 0.0139094
21.5699 18.3956 3.39609 0.152208 0.988333 0.00194517
21.6128 18.3777 2.36332 0.110043 0.993595 -0.0167199
21.6668 18.3652 1.23895 0.134957 0.990689 0.00413656
21.6963 18.389 0.00300009 0.133552 0.990919 0.00899593
21.7391 18.3988 -1.02906 0.125685 0.991889 0.0127796
21.787 18.4056 -2.14076 0.120883 0.992657 0.00153496
21.7968 18.424 -3.20957 0.103344 0.994205 0.0157636
21.798 18.4239 -3.36666 0.084328 0.996384 -0.00722547
20.8564 18.4924 -3.45169 0.0641233 0.997763 -0.0186649
20.8537 18.506 -2.33359 0.0930765 0.995599 -0.00172187
20.7991 18.4939 -1.00053 0.0888799 0.995832 0.0182025
20.7625 18.4925 0.0308914 0.0785491 0.996651 0.0161563
20.7283 18.4687 1.01639 0.0808149 0.996693 0.00639393
20.6937 18.4666 2.12459 0.0890241 0.996024 0.00312619
20.6409 18.504 3.1207 0.0351879 0.998845 -0.0278382
20.641 18.5106 3.56114 0.0665673 0.997305 -0.0226318
19.6738 18.5303 3.37155 0.00398563 0.999984 -0.00353198
19.74 18.5216 2.37152 0.0382529 0.999268 0.000906647
19.7486 18.5258 1.23081 0.0446312 0.998893 0.0144634
19.8049 18.5349 0.250393 0.0450536 0.998796 0.0172059
19.8595 18.5389 -0.963458 0.0116283 0.99988 -0.00514336
19.8975 18.5432 -1.96529 0.00479696 0.999882 -0.0126408
19.9214 18.5277 -3.00117 0.00768909 0.999934 -0.00435387
19.9241 18.5245 -3.40196 0.000144555 0.999941 -0.0108711
18.9811 18.5208 -3.66179 -0.00227671 0.999938 0.00999794
18.9737 18.5255 -2.43294 -0.0183226 0.999809 -0.00677262
18.9309 18.5336 -1.1562 -0.0183252 0.999805 -0.00729638
18.8583 18.5453 -0.0309411 -0.0200287 0.99968 -0.0154295
18.8145 18.5459 0.958641 -0.0102837 0.999715 0.014015
18.7829 18.5342 1.97927 -0.00209867 0.999971 0.00428064
18.7067 18.5239 3.16334 -0.00999199 0.999846 0.00211793
18.7033 18.5265 3.39499 -0.00828916 0.999861 -0.0141546
17.7559 18.4975 3.38086 -0.06184 0.998074 -0.00485586
17.8088 18.5033 2.05439 -0.0631935 0.997939 0.00324893
17.8662 18.5094 0.934912 -0.0732658 0.997273 0.0071658
17.9108 18.5175 -0.216134 -0.0378991 0.999237 -0.00497409
17.9942 18.5009 -1.27437 -0.0506785 0.998706 -0.00423775
18.0115 18.4854 -2.45363 -0.0678259 0.99762 -0.0124237
18.02 18.4762 -3.4392 -0.0694364 0.997526 0.0109582
17.0589 18.4044 -3.50091 -0.0795511 0.996806 0.00476375
17.0654 18.4142 -2.41246 -0.084022 0.996387 -0.0115709
17.0417 18.4244 -1.17032 -0.0933827 0.995621 -0.00388886
16.9723 18.4277 0.0605364 -0.108192 0.994078 -0.00746071
16.9282 18.4287 1.09547 -0.102104 0.994764 -0.00194454
16.8638 18.42 2.1169 -0.101884 0.994784 -0.00422626
16.811 18.42 3.13365 -0.103256 0.99464 -0.00429105
16.8036 18.42 3.42764 -0.105872 0.994378 -0.00143264
15.858 18.2983 3.37145 -0.136919 0.990568 0.0008043
15.9164 18.3095 2.15792 -0.129151 0.991531 0.00886048
15.9663 18.3225 1.12561 -0.11907 0.992853 -0.00418831
16.0254 18.316 0.142702 -0.138887 0.990228 -0.0116099
16.0802 18.3166 -1.03496 -0.138196 0.990387 0.0014037
16.1112 18.3162 -2.08658 -0.125802 0.99189 -0.00906771
16.1273 18.3081 -3.25172 -0.11812 0.992974 0.00676618
16.1179 18.3083 -3.54795 -0.127009 0.991843 -0.000619172
15.1871 18.1764 -3.5666 -0.14391 0.989584 -0.00368528
15.1829 18.1794 -2.5825 -0.143813 0.989597 -0.00383842
15.1548 18.1789 -1.56515 -0.150171 0.988654 -0.00357657
15.0956 18.178 -0.271717 -0.142046 0.989843 -0.00586689
15.0346 18.1745 0.845711 -0.157009 0.98759 -0.00350136
14.968 18.1672 1.91121 -0.159171 0.987224 0.0038894
14.9193 18.1624 2.99827 -0.155383 0.987831 -0.00675507
14.9083 18.1625 3.56473 -0.144775 0.989446 -0.00356838
13.9618 18.011 3.51969 -0.16582 0.98612 -0.0084555
13.9839 18.007 2.47525 -0.165693 0.986173 -0.00305351
14.07 18.0183 1.31693 -0.163024 0.986621 -0.00145565
14.1635 18.0326 0.0463605 -0.159891 0.987133 -0.00148112
14.2112 18.0368 -1.05327 -0.159772 0.987137 -0.00542926
14.2327 18.0375 -2.25018 -0.15247 0.988307 -0.00156993
14.2268 18.0339 -3.24396 -0.153233 0.988185 -0.00322279
14.2141 18.0309 -3.513 -0.153334 0.988164 -0.00459458
13.2916 17.8888 -3.34367 -0.152737 0.988259 -0.00397079
13.2997 17.8932 -2.3347 -0.154672 0.987962 0.00258507
13.2788 17.8891 -1.04391 -0.154901 0.987929 -0.00112281
13.2306 17.8818 0.0172573 -0.158485 0.987361 -0.000357503
13.1402 17.8654 1.09221 -0.16017 0.987082 0.00392481
13.0451 17.8489 2.35675 -0.164043 0.986449 -0.00270184
13.0058 17.8487 3.44765 -0.166206 0.986046 -0.00934836
12.0711 17.7019 3.45027 -0.14325 0.989651 -0.0079439
12.0844 17.696 2.46772 -0.148385 0.988919 -0.00404615
12.191 17.7139 1.32203 -0.15358 0.988127 0.00420918
12.2683 17.7293 0.351513 -0.153977 0.988072 0.00230192
12.3312 17.7418 -0.895615 -0.148171 0.988958 0.00257272
12.3399 17.7452 -1.97191 -0.146735 0.989175 0.000998116
12.3672 17.7476 -3.09927 -0.147071 0.989111 -0.00477504
12.3589 17.7455 -3.33264 -0.144657 0.98947 -0.00465782
11.3902 17.6044 -3.58008 -0.132283 0.991191 -0.00607535
11.4336 17.6124 -2.40427 -0.14178 0.98989 0.000662623
11.4017 17.6067 -1.24003 -0.141544 0.989932 -0.000213248
11.3471 17.592 -0.176132 -0.14148 0.989915 0.00303683
11.2714 17.5794 0.865644 -0.138111 0.990409 0.00356107
11.1402 17.5554 2.09063 -0.126487 0.991961 -0.00147484
11.1315 17.566 3.2776 -0.134889 0.990839 -0.00649358
11.1448 17.5688 3.45156 -0.135301 0.990788 -9.40816e-05
10.1574 17.4416 3.50652 -0.119491 0.992834 -3.29186e-05
10.193 17.4472 2.19976 -0.104715 0.994501 -0.00148799
10.2679 17.4537 1.1473 -0.114484 0.993425 -0.000119108
10.3832 17.4639 0.0824461 -0.115584 0.993246 0.00403198
10.426 17.4715 -0.997463 -0.121606 0.992536 0.00260034
10.4996 17.4893 -2.21619 -0.128521 0.991687 0.00607501
10.4583 17.4862 -3.30104 -0.12446 0.992223 -0.00148993
10.4535 17.4854 -3.37101 -0.123635 0.992326 -0.00183003
9.53431 17.378 -3.53824 -0.111293 0.993786 -8.91533e-05
9.54091 17.3781 -2.48477 -0.103157 0.994658 -0.00143885
9.48772 17.3727 -1.39501 -0.101872 0.994797 0.000590836
9.41033 17.3635 -0.343455 -0.0946144 0.995479 0.00838607
9.37663 17.3564 0.691248 -0.100007 0.994978 0.00164413
9.27219 17.3471 1.75579 -0.0926647 0.995697 -0.000459386
9.21092 17.3381 2.8645 -0.104124 0.994522 0.00582002
9.22173 17.3395 3.23276 -0.105839 0.994371 0.00305619
8.27811 17.248 3.15768 -0.0948626 0.99548 0.00447893
8.31389 17.259 2.1094 -0.0894023 0.995945 0.00950567
8.39649 17.2649 0.711029 -0.0844798 0.996418 0.000707795
8.45632 17.2769 -0.48711 -0.0846249 0.996399 0.000818292
8.56567 17.2834 -1.75446 -0.0909353 0.995849 -0.00382247
8.5808 17.2842 -2.78669 -0.0867658 0.996227 -0.00189804
8.57942 17.2833 -3.42763 -0.0828511 0.996559 -0.00134353
7.64467 17.2087 -3.40019 -0.078031 0.996949 -0.00158631
7.64708 17.2076 -2.15175 -0.0713442 0.997434 0.000998258
7.55697 17.2033 -1.08293 -0.0724649 0.997366 -0.00326628
7.45207 17.193 0.104717 -0.0754454 0.997134 0.00569494
7.4167 17.1884 1.2266 -0.0682588 0.997649 0.00248802
7.34123 17.1743 2.28933 -0.0766633 0.99702 0.00728412
7.30231 17.1628 3.40598 -0.0737606 0.997252 0.00648099
6.33827 17.0953 3.39614 -0.0664044 0.997766 0.00705671
6.37056 17.1048 2.37808 -0.0668358 0.997729 0.0083272
6.43344 17.118 1.39205 -0.0637912 0.997908 0.0104511
6.49123 17.1274 0.395056 -0.0632482 0.997995 0.00252343
6.54929 17.1335 -0.670866 -0.063435 0.997985 -0.000164704
6.66543 17.1419 -1.81539 -0.0660004 0.997818 0.00185512
6.71175 17.1453 -2.95178 -0.0648767 0.997892 -0.00148951
6.71672 17.1446 -3.52062 -0.0636669 0.997961 -0.00439188
5.80137 17.0882 -3.36091 -0.0586954 0.998275 -0.00154011
5.75897 17.0867 -2.37314 -0.0596407 0.99822 0.000374131
5.63807 17.0774 -1.22886 -0.0578521 0.998321 0.00220455
5.54607 17.0696 -0.0579437 -0.0595705 0.998221 0.00241164
5.48184 17.0608 1.09284 -0.0611077 0.998105 0.00678121
5.40796 17.0455 2.29657 -0.0552863 0.998426 0.00932976
5.36566 17.0351 3.3694 -0.0553536 0.998422 0.0092924
4.3684 16.9821 3.53638 -0.0439759 0.998987 0.00959268
4.44617 16.9967 2.25409 -0.0466924 0.998875 0.00828348
4.52141 17.0093 0.961513 -0.0522803 0.998625 0.00397243
4.58078 17.0159 -0.0158939 -0.0514859 0.99867 0.00284429
4.71465 17.0271 -1.28705 -0.0538429 0.998541 0.00414271
4.81685 17.0357 -2.30544 -0.0529696 0.998596 0.000419538
4.86173 17.0372 -3.51559 -0.052811 0.998604 -0.000285695
4.85915 17.037 -3.56879 -0.0519521 0.998645 -0.00204505
3.9356 16.9943 -3.4068 -0.0396197 0.999214 0.001063
3.87614 16.9904 -2.35858 -0.044321 0.999016 0.00155039
3.69242 16.9769 -1.10721 -0.0427096 0.999079 0.00395499
3.59958 16.969 0.0855273 -0.0448225 0.99899 0.00324372
3.54785 16.9619 1.19288 -0.0441205 0.999018 0.00399256
3.49388 16.953 2.43344 -0.0433746 0.999041 0.00585125
3.40858 16.9433 3.41621 -0.0389217 0.999227 0.00549938
3.40353 16.9426 3.49972 -0.0391499 0.999216 0.00594931
2.42903 16.9063 3.52523 -0.0360916 0.999343 0.00336757
2.54367 16.9149 2.39118 -0.0371808 0.999297 0.00468837
2.5719 16.9232 1.18892 -0.0326408 0.999451 0.0056335
2.59366 16.9299 0.0886235 -0.0332177 0.999439 0.00433207
2.6843 16.9362 -0.93607 -0.0364051 0.999333 0.00282319
2.88151 16.9482 -2.0179 -0.0403082 0.999181 0.00358209
3.01167 16.9574 -3.17745 -0.0389148 0.999236 0.00355862
2.05809 16.9255 -3.29284 -0.0309247 0.999507 0.00504855
1.91616 16.9164 -2.13213 -0.0310883 0.999511 0.00330983
1.70873 16.9069 -1.09607 -0.0288175 0.999571 0.00446742
1.58161 16.8979 -0.0144938 -0.0278716 0.999596 0.00468118
1.61085 16.8936 1.23798 -0.0269864 0.999621 0.00469277
1.54769 16.8866 2.40238 -0.0223397 0.99974 0.00418766
1.49489 16.8816 3.2863 -0.024717 0.999678 0.00520834
0.541159 16.8614 3.4812 -0.0182521 0.999821 0.00488262
0.546457 16.8668 2.33728 -0.0166377 0.999855 0.00328155
0.630377 16.8708 1.33709 -0.0190188 0.99981 0.0042379
0.582209 16.8751 0.225071 -0.0188365 0.999815 0.00335663
0.591263 16.8768 -0.754325 -0.0201323 0.999789 0.00394868
0.860799 16.8869 -1.84443 -0.0236004 0.999713 0.00410514
1.03775 16.8939 -2.8391 -0.0275495 0.999607 0.00523276
1.08254 16.898 -3.36389 -0.0270815 0.999617 0.00561291
0.0580371 16.8734 -3.44698 -0.0190701 0.999806 0.0040411
-0.0840076 16.8698 -2.3787 -0.0168659 0.999857 0.00105619
-0.394599 16.8617 -1.36749 -0.0123026 0.999917 0.00367819
-0.472506 16.8562 -0.375163 -0.0127755 0.999908 0.00359496
-0.441555 16.8568 0.667793 -0.011674 0.999929 0.00118841
-0.345901 16.8549 1.72305 -0.0132024 0.999911 0.00200554
-0.444249 16.8509 2.74776 -0.013256 0.999902 0.0045381
-0.399306 16.8493 3.22177 -0.0125849 0.999908 0.00500426
-1.31774 16.8384 3.32419 -0.010915 0.999931 0.00430182
-1.49721 16.8407 2.32014 -0.00981974 0.999945 0.00349748
-1.299 16.8454 1.35344 -0.0103704 0.999942 0.00295105
-1.48813 16.8459 0.202381 -0.0094244 0.999955 0.000401096
-1.48192 16.8478 -0.793582 -0.00843694 0.99996 0.00286483
-1.39042 16.8514 -1.85548 -0.00886337 0.999956 0.00294288
-1.24214 16.8544 -2.94689 -0.00986976 0.999949 0.00193585
-1.16903 16.856 -3.21728 -0.0110943 0.99993 0.00399424
-2.44465 16.846 -3.54008 -0.00986059 0.999948 0.00233159
-2.44465 16.844 -2.56276 -0.00734894 0.999972 0.00137985
-2.44465 16.8415 -1.30056 -0.00720682 0.999969 0.00310775
-2.41897 16.8392 -0.256655 -0.00757219 0.999969 0.00192997
-2.44465 16.8365 1.00228 -0.00744407 0.999967 0.00310992
-2.44465 16.832 2.26016 -0.00937349 0.999949 0.00386656
-2.44032 16.8265 3.36399 -0.0113331 0.999922 0.00531694
-2.42706 16.8262 3.45568 -0.011411 0.99992 0.00554649
-3.27353 16.8163 3.43709 -0.0118908 0.999912 0.00594928
-3.48454 16.8204 2.34178 -0.0121169 0.999906 0.00643059
-3.55187 16.8262 1.10477 -0.0110686 0.999931 0.0039944
-3.36302 16.8309 0.0849057 -0.0106003 0.999942 0.00175373
-3.31744 16.8334 -0.90253 -0.00907432 0.999954 0.00299265
-3.54152 16.8344 -2.03662 -0.010133 0.999947 0.00157917
-3.3591 16.8359 -3.18982 -0.0121642 0.999926 0.000251077
-3.34605 16.8361 -3.41 -0.0119396 0.999929 0.000508522
-4.33386 16.8223 -3.46959 -0.0168041 0.999857 -0.0020066
-4.41082 16.823 -2.31228 -0.0131058 0.999914 -0.000649968
-4.39056 16.8228 -1.27853 -0.0139125 0.999902 0.00175175
-4.24298 16.8206 -0.179442 -0.0137537 0.999903 0.00134012
-4.46001 16.8133 0.869067 -0.0167899 0.999848 0.00462593
-4.42746 16.8096 1.86482 -0.0175216 0.999831 0.00563084
-4.2801 16.8037 3.12697 -0.0166895 0.99984 0.00644406
-4.26245 16.8032 3.26157 -0.0169101 0.99984 0.00585047
-5.27884 16.7843 3.25826 -0.0251908 0.999647 0.00842268
-5.37243 16.79 2.12771 -0.0201143 0.999772 0.0071928
-5.38876 16.7959 1.09295 -0.0206931 0.999777 0.00412293
-5.23175 16.8046 -0.136161 -0.0171999 0.999831 0.00650727
-5.2931 16.8074 -1.1003 -0.022631 0.999742 -6.632e-06
-5.33773 16.8052 -2.27909 -0.0223446 0.999747 -0.00257602
-5.28273 16.8045 -3.26128 -0.0244818 0.999697 -0.0024951
-5.30469 16.8028 -3.64193 -0.023209 0.999724 -0.00340647
-6.2806 16.7771 -3.65173 -0.0313071 0.999508 -0.00208927
-6.23705 16.7822 -2.66611 -0.0275501 0.999612 -0.0039965
-6.26794 16.7833 -1.61804 -0.0266656 0.999643 0.000805254
-6.18627 16.7838 -0.612222 -0.0302711 0.999535 0.00343171
-6.29085 16.7749 0.591291 -0.030339 0.999528 0.00469156
-6.31822 16.7686 1.75275 -0.0335862 0.999408 0.00746289
-6.26508 16.7605 2.93636 -0.0294633 0.999545 0.00645848
-6.28231 16.7565 3.43878 -0.0281251 0.99958 0.00687831
-7.2711 16.7236 3.4677 -0.0379863 0.999271 0.00336844
-7.23677 16.7318 2.32317 -0.0343659 0.999384 0.00714751
-7.27278 16.7372 1.29295 -0.0400475 0.999185 0.00498532
-7.19847 16.7447 0.182084 -0.0385533 0.999247 0.00441177
-7.16966 16.7514 -0.926191 -0.0403391 0.999159 0.00698533
-7.2105 16.7534 -2.34081 -0.0374051 0.999296 0.00099447
-7.24158 16.7475 -3.38989 -0.0322205 0.999466 -0.00416745
-8.22937 16.706 -3.46319 -0.0523092 0.99863 0.000446354
-8.16846 16.7097 -2.49133 -0.0540574 0.998537 -5.88102e-05
-8.15033 16.7119 -1.512 -0.0469521 0.998893 0.00203942
-8.11886 16.7077 -0.218579 -0.049864 0.998739 0.00506519
-8.24814 16.6926 1.13397 -0.0565868 0.998369 0.00589195
-8.18927 16.6918 2.4306 -0.0479197 0.998837 0.0051057
-8.23707 16.6841 3.46743 -0.0441057 0.999022 0.00321442
-9.2067 16.6311 3.5237 -0.0628809 0.99802 0.00094024
-9.15419 16.6373 2.50948 -0.0609315 0.998131 0.00458282
-9.1932 16.6387 1.29078 -0.0571559 0.998364 0.0017488
-9.10884 16.647 0.285264 -0.0667554 0.99775 0.00615986
-9.09386 16.6532 -0.817472 -0.0642502 0.997923 0.00412483
-9.10567 16.6579 -2.0852 -0.063597 0.99797 0.00228345
-9.15115 16.6565 -3.1147 -0.0664428 0.997783 0.00321505
-9.15568 16.6565 -3.18648 -0.0641755 0.997932 0.00295465
-10.136 16.5915 -3.50774 -0.0735001 0.997282 -0.00167617
-10.0597 16.5926 -2.26402 -0.0745294 0.997209 0.000881616
-10.0258 16.5912 -1.14682 -0.0739565 0.997251 0.00448294
-10.0335 16.5844 0.165958 -0.0689698 0.997605 0.00525657
-10.1386 16.5689 1.32588 -0.0830119 0.996508 -0.00580513
-10.1093 16.5716 2.31509 -0.0857047 0.996245 0.0120854
-10.1495 16.564 3.28774 -0.0796026 0.996808 0.005081
-10.1503 16.564 3.2944 -0.0814204 0.996664 -0.00257434
-11.1127 16.4802 3.50162 -0.110328 0.993894 -0.00149725
-11.068 16.4839 2.39514 -0.10334 0.994625 0.00396194
-11.0598 16.4848 1.34351 -0.100236 0.994963 0.00123753
-10.9757 16.4976 0.255449 -0.108244 0.99404 0.00849685
-10.9577 16.5082 -0.735036 -0.0949294 0.995416 0.00999417
-10.9838 16.5108 -1.90643 -0.103104 0.99465 -0.00194342
-11.0598 16.503 -3.06363 -0.108389 0.994105 0.00247522
-11.0822 16.5019 -3.41433 -0.107741 0.994173 0.0031048
-12.0335 16.3939 -3.38837 -0.122923 0.992385 0.0078773
-11.9638 16.3958 -2.39426 -0.125608 0.992078 0.00185396
-11.9277 16.3999 -1.36753 -0.129223 0.991615 0.00107449
-11.9203 16.3948 -0.357982 -0.119029 0.9928 0.0118869
-11.9676 16.3789 0.711648 -0.126773 0.991905 -0.00677839
-12.001 16.3769 1.77707 -0.125808 0.992046 0.00407623
-12.0387 16.3705 2.78302 -0.129068 0.991624 -0.00245782
-12.0569 16.3707 3.23625 -0.12616 0.991994 -0.00557669
-13.0074 16.2472 3.53719 -0.137109 0.990501 -0.00842445
-12.9756 16.2441 2.53109 -0.140712 0.99004 -0.0021168
-12.9455 16.2512 1.51752 -0.147399 0.988993 -0.000206097
-12.898 16.2563 0.405616 -0.140592 0.989957 -0.00203093
-12.86 16.262 -0.568077 -0.153011 0.988213 0.00158647
-12.8797 16.2715 -1.86742 -0.1511 0.98847 0.00946729
-12.9594 16.263 -2.94081 -0.143476 0.98962 0.00814108
-12.9827 16.2635 -3.46417 -0.149685 0.988731 0.00193577
-13.9195 16.1085 -3.57374 -0.178352 0.983959 -0.00183363
-13.8644 16.1177 -2.3993 -0.170989 0.985223 0.00914063
-13.814 16.1101 -1.28035 -0.168747 0.985552 0.0145265
-13.814 16.1017 -0.236935 -0.170198 0.985393 0.00193229
-13.8389 16.1008 0.87267 -0.16748 0.985874 -0.00161173
-13.8644 16.098 1.89726 -0.167807 0.985817 -0.0022711
-13.9496 16.0948 3.11427 -0.171708 0.985094 -0.00454875
-13.9532 16.0951 3.43775 -0.175974 0.984374 -0.00395777
-14.8706 15.9208 3.30496 -0.202591 0.979233 -0.00606516
-14.8227 15.9192 2.13007 -0.189757 0.981815 -0.00284499
-14.7637 15.9291 1.07384 -0.19639 0.980522 -0.00254885
-14.7649 15.9241 0.0841847 -0.188382 0.982062 -0.000917232
-14.7499 15.9359 -1.00803 -0.191842 0.981301 0.00978241
-14.7939 15.9361 -2.10445 -0.203198 0.979081 0.010546
-14.8272 15.9337 -3.08091 -0.20082 0.979622 -0.00350592
-14.848 15.9279 -3.55534 -0.202841 0.979192 -0.00526082
-15.7817 15.7231 -3.40157 -0.226997 0.973894 -0.00130193
-15.7154 15.736 -2.03559 -0.223955 0.974548 0.010068
-15.6904 15.7323 -0.705938 -0.217721 0.975954 0.0075181
-15.7147 15.7251 0.309172 -0.222966 0.974824 -0.000732606
-15.7109 15.7282 1.42979 -0.22678 0.973946 -0.000397062
-15.7635 15.7213 2.58829 -0.216733 0.976193 -0.0084983
-15.7761 15.7246 3.2668 -0.217082 0.976132 -0.00512704
-16.6987 15.5061 3.28224 -0.249017 0.968492 -9.03978e-06
-16.6604 15.5107 2.30578 -0.250653 0.968021 -0.0102065
-16.6466 15.5052 1.1608 -0.242109 0.97022 -0.00741275
-16.6359 15.5024 0.132299 -0.244735 0.969582 0.00310438
-16.6153 15.51 -1.13817 -0.257773 0.966204 0.00149078
-16.6573 15.5056 -2.47171 -0.2566 0.966466 0.00303396
-16.7142 15.485 -3.62116 -0.263536 0.964649 0.000307035
-17.6238 15.2323 -3.34027 -0.274067 0.961709 -0.00148721
-17.555 15.2506 -2.15393 -0.276749 0.960936 -0.00342525
-17.5243 15.2628 -1.04093 -0.270199 0.962803 -0.000844897
-17.5453 15.2644 0.0773196 -0.275423 0.961317 -0.00331852
-17.5665 15.2617 1.26571 -0.274532 0.961572 0.000707952
-17.5872 15.2653 2.62387 -0.273909 0.96168 -0.0120838
-17.6155 15.2642 3.22579 -0.263705 0.964559 -0.00770757
-18.5139 14.9977 3.43113 -0.288693 0.957417 -0.0028423
-18.5014 14.9952 2.39399 -0.291379 0.95654 -0.0102838
-18.4784 14.9905 1.38842 -0.285691 0.958303 -0.00580949
-18.4485 14.9961 0.16801 -0.291662 0.956518 -0.000553791
-18.4541 14.9865 -0.860466 -0.302809 0.953048 -0.00254819
-18.4514 14.9852 -1.89838 -0.305559 0.952172 -0.00175111
-18.5057 14.9669 -3.17189 -0.30947 0.950905 -0.00205644
-18.5241 14.9601 -3.36704 -0.307045 0.951639 -0.00862587
-19.427 14.6633 -3.38539 -0.317053 0.948402 -0.00343134
-19.3988 14.678 -2.21849 -0.318402 0.947947 -0.0039041
-19.3617 14.6952 -1.14652 -0.311628 0.950196 -0.00390104
-19.3663 14.707 0.00262745 -0.299009 0.954198 -0.00979573
-19.3583 14.7154 1.12375 -0.309814 0.950781 -0.00399138
-19.4127 14.7067 2.30068 -0.307137 0.951625 -0.00680721
-19.4234 14.7084 3.45928 -0.310655 0.950521 -0.00160577
-20.3359 14.3974 3.3969 -0.332232 0.943196 -0.0018609
-20.2946 14.4099 2.28366 -0.32777 0.944756 -0.00127726
-20.2658 14.41 1.16934 -0.326174 0.945293 -0.00549896
-20.2813 14.3988 0.0459162 -0.322785 0.946451 -0.00598759
-20.2384 14.4031 -0.939318 -0.32559 0.945453 -0.00999227
-20.3211 14.3668 -1.95825 -0.321955 0.946751 -0.00285278
-20.3008 14.3685 -3.09356 -0.326216 0.94529 -0.00298069
-20.3185 14.3611 -3.43274 -0.324513 0.945867 -0.00457709
-21.2418 14.0379 -3.48833 -0.3329 0.942955 -0.000286925
-21.2047 14.0536 -2.43732 -0.337263 0.9414 -0.00449698
-21.2006 14.0609 -1.41064 -0.336935 0.941503 -0.00674561
-21.1626 14.0855 -0.179271 -0.340062 0.940375 -0.00651137
-21.1617 14.0913 0.850815 -0.339355 0.940607 -0.00976984
-21.176 14.097 1.97474 -0.34176 0.939746 -0.0087548
-21.2001 14.091 3.00958 -0.339019 0.940779 0.000428277
-21.2257 14.0814 3.4161 -0.341206 0.939987 0.00137592
-22.109 13.7542 3.56329 -0.350884 0.936418 -0.000799666
-22.0784 13.7661 2.58643 -0.351071 0.936349 0.00055764
-22.0546 13.7706 1.60253 -0.35192 0.936012 -0.00570296
-22.0681 13.758 0.413031 -0.344854 0.938635 -0.00620748
-22.0993 13.7409 -0.623981 -0.347828 0.937537 -0.00628268
-22.0969 13.7367 -1.65383 -0.340271 0.940306 -0.00615873
-22.1108 13.7238 -2.71361 -0.343774 0.939045 -0.00350324
-22.1333 13.7127 -3.4306 -0.345422 0.938439 -0.00349017
-23.0113 13.3836 -3.48994 -0.352746 0.93571 -0.00412965
-23.0007 13.3925 -2.42047 -0.355331 0.934711 -0.00725503
-22.9674 13.412 -1.2795 -0.354592 0.935011 -0.00437503
-22.9635 13.4195 -0.108121 -0.356593 0.934242 -0.00574764
-22.9303 13.4367 0.878825 -0.354409 0.935084 -0.00348236
-22.9352 13.4376 1.85168 -0.356264 0.934381 -0.00249855
-22.9782 13.4247 2.88565 -0.356522 0.934279 -0.0037685
-22.9971 13.419 3.54412 -0.356163 0.934422 0.000925515
-23.8817 13.0759 3.17882 -0.363005 0.931781 -0.00305739
-23.8283 13.0942 2.0528 -0.36251 0.931976 -0.0025269
-23.8005 13.103 1.02882 -0.359207 0.933253 -0.00285225
-23.8443 13.0824 -0.0100165 -0.360351 0.932792 -0.00671241
-23.8751 13.0639 -1.19801 -0.358961 0.93334 -0.00476379
-23.8899 13.053 -2.37382 -0.358838 0.933395 -0.00289936
-23.9146 13.0396 -3.5546 -0.357949 0.933732 -0.00353344
-24.8052 12.6965 -3.3838 -0.359718 0.933056 -0.00298636
-24.7866 12.7076 -2.33457 -0.362916 0.931814 -0.00370696
-24.7482 12.7262 -1.25685 -0.362229 0.932085 -0.00245777
-24.7359 12.7351 -0.146967 -0.365197 0.930924 -0.00331002
-24.6739 12.7633 0.917815 -0.365747 0.930707 -0.00367009
-24.6878 12.7593 2.00903 -0.364861 0.931062 0.000209741
-24.7622 12.7321 2.99825 -0.364596 0.931161 -0.00270634
-24.7673 12.7315 3.37031 -0.364128 0.931345 -0.00275294
-25.6666 12.3759 3.52738 -0.369524 0.92922 -0.00136687
-25.6029 12.3992 2.24837 -0.368641 0.929568 -0.00247477
-25.5696 12.4102 1.0786 -0.368446 0.929648 -0.00134699
-25.588 12.4008 0.060583 -0.366637 0.930362 -0.00167707
-25.6156 12.3871 -1.09428 -0.365011 0.931 -0.00243976
-25.6499 12.3707 -2.28567 -0.365947 0.930633 -0.00213067
-25.6882 12.3527 -3.43372 -0.364697 0.931123 -0.00241664
-26.5742 12.0052 -3.50913 -0.365357 0.930866 -0.00133591
-26.5416 12.0198 -2.25755 -0.366884 0.930265 -0.00188123
-26.4939 12.0414 -0.929673 -0.368218 0.929738 -0.00161461
-26.465 12.054 0.079517 -0.368528 0.929616 -0.000260582
-26.4587 12.0572 1.05641 -0.369001 0.929428 -0.00108281
-26.5016 12.0422 2.44762 -0.370729 0.92874 -0.00117955
-26.5438 12.0265 3.39384 -0.371132 0.92858 -0.000802247
-27.4351 11.6698 3.4269 -0.372433 0.928059 -0.000910087
-27.3624 11.6979 2.41155 -0.371815 0.928306 -0.000809662
-27.3378 11.7072 1.4302 -0.370788 0.928718 -3.48194e-05
-27.343 11.7052 0.363714 -0.370719 0.928745 0.000168954
-27.3791 11.6908 -0.873891 -0.368971 0.929441 -0.000333928
-27.4051 11.6796 -2.14587 -0.367439 0.930047 -0.000696392
-27.4505 11.6598 -3.30897 -0.367136 0.930167 -0.00108188
-27.4558 11.6576 -3.47478 -0.367266 0.930115 -0.00115406
-28.3339 11.3104 -3.45432 -0.368143 0.929769 -0.000894001
-28.2959 11.3264 -2.30969 -0.369223 0.92934 -0.00108849
-28.284 11.331 -1.3032 -0.370426 0.928862 0.000359145
-28.2467 11.3448 -0.0945216 -0.371055 0.92861 0.00135664
-28.2233 11.3531 1.03929 -0.371834 0.928299 0.000556221
-28.2407 11.3457 2.07781 -0.372236 0.928138 0.000166096
-28.2968 11.3234 3.13363 -0.373657 0.927567 -0.000142992
-28.313 11.317 3.37641 -0.373848 0.92749 -0.000621626
-29.2079 10.9563 3.49964 -0.374069 0.927401 -0.000463013
-29.1341 10.9861 2.5005 -0.374102 0.927388 0.000450941
-29.1324 10.9876 1.36184 -0.3735 0.92763 0.00084947
-29.1319 10.9892 0.246791 -0.373027 0.927819 0.00163489
-29.1447 10.9857 -0.813017 -0.3728 0.927911 0.00124606
-29.1749 10.9751 -1.8578 -0.37155 0.928412 0.00108585
-29.2034 10.9645 -2.86201 -0.370681 0.92876 0.000424939
-29.2041 10.9648 -3.58417 -0.370036 0.929017 0.000664095
-30.0942 10.6093 -3.37069 -0.371264 0.928526 0.00150079
-30.0521 10.6242 -2.1977 -0.372069 0.928204 0.00144902
-30.056 10.6201 -0.95713 -0.372485 0.928036 0.0019893
-30.0056 10.6376 0.378988 -0.37444 0.927249 0.00182614
-30.0158 10.6314 1.44251 -0.374292 0.92731 0.00161279
-30.0351 10.6223 2.61371 -0.374498 0.927227 0.000671416
-30.0829 10.6024 3.22579 -0.375499 0.926823 7.93086e-05
-15.0658 15.8853 4.58814 -0.209913 0.977717 -0.00242414
-13.9411 16.1015 4.58973 -0.172811 0.984948 -0.00351804
-12.5964 16.3067 4.63098 -0.138597 0.990342 -0.00272026
-11.425 16.4489 4.64617 -0.108848 0.994055 -0.0024835
-10.3242 16.5514 4.64407 -0.0776391 0.996956 0.00409506
-8.98078 16.641 4.59076 -0.0573305 0.998353 0.00185122
-7.73974 16.7026 4.60198 -0.0414219 0.99914 0.00127628
-6.58276 16.7404 4.63929 -0.0280924 0.999596 0.00430181
-5.45977 16.7704 4.64673 -0.0243321 0.999693 0.00424634
-4.30855 16.794 4.57596 -0.0188392 0.999799 0.00668303
-2.9033 16.8145 4.61635 -0.0117773 0.999919 0.00480387
-1.70486 16.8279 4.6031 -0.0105008 0.99993 0.00547141
-0.483614 16.8409 4.60047 -0.012286 0.999911 0.00507197
0.911222 16.8612 4.60954 -0.017224 0.999815 0.0085575
2.0283 16.8874 4.64571 -0.0311758 0.999496 0.00580371
3.52947 16.9381 4.68082 -0.0358888 0.999312 0.00937412
4.66513 16.9837 4.67425 -0.0489619 0.998721 0.0126465
5.78779 17.0454 4.62868 -0.0667544 0.997679 0.013404
6.99069 17.1291 4.6114 -0.0716221 0.997349 0.0128189
8.06844 17.2184 4.61422 -0.0945401 0.995475 0.00882612
9.19078 17.3306 4.57973 -0.103857 0.994509 0.0117192
10.3696 17.469 4.60499 -0.125265 0.992119 -0.00289205
11.4482 17.6138 4.61076 -0.145053 0.989404 -0.00603995
12.5363 17.7853 4.62965 -0.163823 0.986403 -0.0129868
13.7765 17.9972 4.67742 -0.167015 0.985782 -0.0183646
14.9828 18.1905 4.64184 -0.145383 0.989173 -0.0176399
16.2362 18.3624 4.64582 -0.12168 0.992397 -0.00999748
17.3831 18.477 4.65693 -0.0643026 0.997927 -0.00209664
18.6508 18.5317 4.63574 -0.0219973 0.999655 0.000105768
20.0782 18.5238 4.61248 0.0232426 0.999715 -0.00379624
21.2587 18.44 4.63441 0.104302 0.994513 0.00764986
22.3243 18.2723 4.66028 0.213107 0.976959 0.0041961
23.6667 17.885 4.64295 0.321889 0.946404 0.00603159
24.9099 17.3046 4.67724 0.549663 0.83266 0.00843825
25.9579 16.4624 4.61681 0.674811 0.73775 -0.0182194
26.6373 15.5548 4.48093 0.890891 0.45354 -0.0229292
26.7079 15.3905 3.41366 0.884253 0.466873 0.0112233
26.7381 15.3863 2.05602 0.885127 0.463731 0.0380561
26.8427 15.3372 0.912492 0.902416 0.416833 0.0899106
26.9069 15.3961 -0.603428 0.894781 0.444099 0.0461898
26.917 15.3967 -1.85402 0.882919 0.46944 0.0064974
26.9628 15.3896 -3.13947 0.901356 0.431619 0.0215064
26.9084 15.4437 -4.45115 0.849889 0.524041 -0.0551473
26.1994 16.3812 -4.73867 0.758375 0.649878 0.0451327
25.2806 17.2098 -4.72221 0.632303 0.774112 0.0300541
24.357 17.7552 -4.72316 0.339461 0.940567 -0.00544892
23.3222 18.1026 -4.68154 0.315009 0.948577 -0.0310958
21.8948 18.3758 -4.65101 0.111848 0.993725 -0.000999452
20.7186 18.4907 -4.64923 0.0790159 0.996748 0.00252359
19.6064 18.5274 -4.69415 0.0214941 0.999664 0.0144649
18.4973 18.5201 -4.73987 -0.0495945 0.998509 0.0144264
17.4131 18.4467 -4.71174 -0.07493 0.997128 0.0109967
16.0773 18.3052 -4.71012 -0.125059 0.992147 -0.00128098
14.8773 18.1265 -4.67986 -0.152031 0.988372 0.00197152
13.6856 17.9414 -4.66592 -0.154898 0.987847 -0.0127804
12.4989 17.7578 -4.65154 -0.147584 0.989014 -0.00836745
11.31 17.585 -4.66528 -0.133141 0.991043 -0.00775701
10.2136 17.4499 -4.71306 -0.113469 0.99352 -0.00651567
9.07609 17.3279 -4.67891 -0.0949382 0.995473 -0.00235715
7.88127 17.2238 -4.60521 -0.0766885 0.997053 -0.00195668
6.49327 17.1253 -4.63967 -0.0638083 0.997935 -0.00725607
5.40246 17.0614 -4.65003 -0.0518228 0.99863 -0.00639613
4.14661 17.001 -4.66836 -0.0409607 0.999144 -0.0027267
2.84147 16.9573 -4.67133 -0.0308166 0.999516 0.00435333
1.70611 16.9231 -4.62047 -0.0252428 0.999656 0.00714094
0.618857 16.8961 -4.60436 -0.024903 0.999647 0.00920685
-0.65788 16.8723 -4.63158 -0.0154518 0.999838 0.00917021
-1.76324 16.8566 -4.6355 -0.0148066 0.99988 0.00344571
-3.01975 16.8405 -4.67927 -0.0143364 0.999896 -0.00127109
-4.17058 16.8219 -4.70713 -0.0179534 0.999837 -0.0018777
-5.28914 16.7992 -4.71615 -0.0232364 0.999725 -0.00305239
-6.40292 16.7709 -4.70987 -0.0278501 0.999608 -0.00196746
-7.56784 16.735 -4.70613 -0.0369726 0.999308 -0.00298639
-8.76942 16.6809 -4.66764 -0.0518389 0.998636 0.0057279
-9.92685 16.6035 -4.67258 -0.075682 0.997129 0.000835509
-11.1479 16.4971 -4.62133 -0.0972526 0.995253 0.00364564
-12.585 16.3265 -4.66723 -0.143013 0.989667 0.00820596
-13.7957 16.1313 -4.69257 -0.170762 0.985289 0.00673431
-14.8593 15.9311 -4.6965 -0.200624 0.9796 0.00681746
-16.1978 15.6254 -4.68326 -0.245785 0.969315 0.00075463
-17.2766 15.3357 -4.66995 -0.272631 0.962041 0.00205473
-18.4772 14.967 -4.63389 -0.302194 0.953246 -0.000897947
-19.5144 14.6293 -4.64077 -0.319918 0.947439 -0.00357066
-20.6451 14.2444 -4.66068 -0.325421 0.945566 -0.00262968
-21.9587 13.7725 -4.72013 -0.346773 0.937931 -0.00565194
-23.0267 13.3731 -4.69503 -0.352482 0.935812 -0.00335979
-24.1391 12.9497 -4.69451 -0.358263 0.933618 -0.00178225
-25.1765 12.5489 -4.72839 -0.362637 0.931928 -0.00224449
-26.32 12.1027 -4.72353 -0.364715 0.931116 -0.0025857
-27.3728 11.689 -4.71104 -0.366302 0.930496 -0.00054744
-28.4002 11.2836 -4.71722 -0.367619 0.929976 6.43345e-05
-29.7878 10.7344 -4.70821 -0.368498 0.929626 0.00217961
-30.8822 10.2978 -4.65501 -0.370878 0.928676 0.00313104
-31.4467 10.0684 -3.75798 -0.372556 0.928006 0.0027
-31.4938 10.0453 -2.49531 -0.373833 0.92749 0.00330489
-31.4549 10.0572 -1.34128 -0.374211 0.92734 0.00270156
-31.475 10.0444 0.00429376 -0.375373 0.926867 0.00352056
-31.4982 10.031 1.23726 -0.376169 0.926548 0.00237823
-31.5103 10.0233 2.34504 -0.377143 0.926153 0.00197685
-31.48 10.0337 3.62054 -0.378003 0.925804 0.000596433
-31.1085 10.1853 4.56929 -0.378002 0.925804 -0.000879285
-29.7771 10.7266 4.64036 -0.37538 0.926871 -0.000877751
-28.7107 11.1579 4.68882 -0.3742 0.927347 -0.00100141
-27.449 11.6662 4.68672 -0.37251 0.928026 -0.00169154
-26.401 12.0859 4.62859 -0.371668 0.928364 -0.00194906
-25.2852 12.5304 4.62287 -0.369482 0.929232 -0.00337361
-24.2593 12.9349 4.61939 -0.364949 0.931016 -0.00460757
-23.227 13.3349 4.65703 -0.357528 0.933889 -0.00446589
-22.0494 13.7796 4.65665 -0.34968 0.936855 -0.00516927
-20.8325 14.2232 4.65256 -0.334644 0.942342 -0.00225382
-19.5785 14.6577 4.65618 -0.315112 0.949037 -0.00375197
-18.4605 15.0152 4.61322 -0.297842 0.954615 0.000401718
-17.1916 15.3794 4.64124 -0.253618 0.96728 0.00413896
-16.0101 15.6743 4.61788 -0.23083 0.972977 -0.00576984
-15.4835 15.7955 4.58382 -0.215663 0.976449 -0.00168402
-15.4301 15.8075 5.66922 -0.21327 0.976946 -0.00959093
-14.2223 16.0527 5.66978 -0.177229 0.984162 0.00132516
-12.9887 16.254 5.69007 -0.150636 0.988566 -0.0048245
-11.728 16.425 5.71515 -0.123144 0.992312 -0.0113326
-10.6439 16.5288 5.71411 -0.0804691 0.996737 -0.00504733
-9.30635 16.6234 5.68514 -0.0589621 0.998249 -0.00462545
-7.98095 16.6904 5.65846 -0.047085 0.998888 -0.00079996
-6.87733 16.729 5.69663 -0.0295361 0.99956 0.00257055
-5.77125 16.7587 5.71602 -0.0247344 0.999689 0.00328306
-4.54682 16.7852 5.63453 -0.0186991 0.999821 0.0028028
-3.41315 16.8025 5.66451 -0.0117179 0.999915 0.00569901
-2.25187 16.8162 5.6855 -0.0105497 0.999931 0.00523468
-1.01752 16.829 5.67874 -0.0105062 0.999924 0.00637121
0.133917 16.8427 5.67658 -0.013217 0.999892 0.00643605
1.30157 16.8631 5.69965 -0.0215158 0.999759 0.00429842
2.44775 16.8927 5.73218 -0.0276846 0.999591 0.00711386
3.6023 16.9316 5.73624 -0.0363257 0.999313 0.007277
5.13621 16.9956 5.71145 -0.0478727 0.998806 0.00962034
6.44016 17.0717 5.67141 -0.0693433 0.997381 0.0199546
7.83104 17.1851 5.66613 -0.0891018 0.995865 0.0169575
9.17751 17.3158 5.67505 -0.10828 0.993848 0.0214289
10.4551 17.4748 5.67771 -0.131767 0.99121 0.0117954
11.5368 17.6282 5.69561 -0.158095 0.987251 0.0107922
12.679 17.8231 5.707 -0.166837 0.985904 -0.0123292
13.9677 18.05 5.7604 -0.167008 0.985632 -0.0252712
15.106 18.2287 5.69674 -0.146738 0.988994 -0.0189106
16.2465 18.3781 5.70419 -0.114671 0.992681 -0.0378294
17.5115 18.4977 5.71058 -0.0684209 0.997343 -0.0222209
18.6211 18.5447 5.7184 -0.0125459 0.999744 -0.0133109
19.7908 18.5339 5.66521 0.0440037 0.999022 -0.00399705
20.9905 18.455 5.71424 0.0917289 0.995767 -0.000745681
22.1947 18.2887 5.71368 0.170919 0.985255 0.00705126
23.2649 18.0196 5.71794 0.276455 0.959817 -0.0385899
24.4924 17.5458 5.76062 0.461591 0.885349 -0.0350176
25.5054 16.8728 5.68225 0.615334 0.785957 -0.0602725
26.368 16.0172 5.67569 0.767039 0.639432 0.0102983
26.946 14.7982 5.61099 0.944267 0.327152 -0.0139234
27.076 14.3898 4.67701 0.967813 0.250261 -0.0217967
27.0877 14.4365 3.51689 0.967504 0.250313 0.0350076
27.1328 14.4125 2.22778 0.968322 0.248664 0.0227763
27.1841 14.3745 1.14945 0.942807 0.327815 0.057587
27.2873 14.395 -0.149597 0.945149 0.319514 0.0643403
27.3618 14.4595 -1.52372 0.937027 0.346773 0.0394791
27.384 14.4366 -2.97463 0.943065 0.332591 0.0012782
27.3829 14.3918 -4.13741 0.927683 0.373354 -0.000339741
27.3477 14.4805 -5.25734 0.932117 0.36051 0.0231523
27.0586 15.282 -5.71708 0.896786 0.429937 0.0861064
26.483 16.2026 -5.76735 0.789075 0.602296 0.0958867
25.4082 17.1943 -5.78062 0.611301 0.787229 0.0795932
24.11 17.8469 -5.74444 0.310064 0.948743 0.0612032
23.0434 18.15 -5.75568 0.218599 0.975319 0.030692
21.7405 18.4017 -5.73396 0.122813 0.991332 0.0360739
20.6425 18.5093 -5.73832 0.0670391 0.997593 0.0172559
19.514 18.5497 -5.74817 -0.0180533 0.999388 0.0291271
18.4072 18.5183 -5.82036 -0.0463807 0.998771 0.0148269
17.0602 18.4248 -5.78425 -0.103438 0.994516 0.00874575
15.8986 18.2769 -5.77589 -0.141239 0.989926 -0.00765733
14.8115 18.1059 -5.74919 -0.163586 0.98636 -0.0182746
13.6841 17.925 -5.75939 -0.150799 0.988393 -0.0183559
12.6025 17.7622 -5.7332 -0.145345 0.989329 -0.0100828
11.4314 17.5922 -5.7081 -0.137221 0.990452 -0.0117543
10.3092 17.4492 -5.7532 -0.113015 0.993395 -0.0197812
8.86166 17.3042 -5.71899 -0.0888553 0.996006 -0.0067961
7.73174 17.2092 -5.6967 -0.080008 0.996779 -0.00454352
6.43463 17.113 -5.71571 -0.0658217 0.997799 -0.00798441
5.10311 17.0371 -5.71778 -0.046215 0.998841 -0.0126968
3.78276 16.9861 -5.73946 -0.0308886 0.999521 -0.00177452
2.50285 16.9497 -5.70374 -0.027761 0.999614 0.000904205
1.38412 16.9226 -5.69 -0.0231942 0.999707 0.00686098
0.0463584 16.8944 -5.71603 -0.0200716 0.999762 0.00851691
-1.28912 16.8702 -5.67795 -0.0178904 0.99982 0.00634778
-2.51556 16.8481 -5.71963 -0.018833 0.99982 -0.000166338
-3.69467 16.8287 -5.76467 -0.0162828 0.999867 -0.000690233
-5.03006 16.8037 -5.77046 -0.023374 0.999727 0.000526714
-6.32966 16.7703 -5.76511 -0.0277107 0.999615 -0.00154394
-7.57975 16.7319 -5.74803 -0.0335298 0.999438 -0.000418553
-8.76351 16.6794 -5.72885 -0.0500328 0.998742 0.000172443
-10.1174 16.591 -5.74036 -0.0709623 0.997438 0.00885042
-11.4833 16.4677 -5.68459 -0.105975 0.994369 -0.000408209
-12.7565 16.3079 -5.75848 -0.14144 0.989927 0.00629181
-13.9516 16.111 -5.75396 -0.177908 0.984008 0.00159241
-15.1754 15.8641 -5.75257 -0.216971 0.976177 -0.00096757
-16.5119 15.5469 -5.75648 -0.247742 0.968796 0.000419637
-17.6032 15.2374 -5.72628 -0.288558 0.95746 -0.000239178
-18.6624 14.9079 -5.74546 -0.310423 0.950565 0.00746581
-19.8996 14.4997 -5.6931 -0.321882 0.946774 -6.25573e-05
-20.9491 14.1369 -5.74232 -0.331073 0.943594 -0.00371256
-22.0205 13.747 -5.77273 -0.347644 0.937626 -0.000323522
-23.1086 13.34 -5.75498 -0.351371 0.936234 0.00099796
-24.2837 12.892 -5.74795 -0.358554 0.933506 -0.00185541
-25.3457 12.4804 -5.77883 -0.3625 0.93198 -0.00253589
-26.6058 11.9883 -5.76519 -0.364494 0.931205 -0.0012743
-27.6489 11.5794 -5.77089 -0.365165 0.930943 -0.000446121
-28.8268 11.1162 -5.73881 -0.366841 0.930282 0.00187571
-29.8457 10.7134 -5.77511 -0.368365 0.929675 0.00333078
-31.0228 10.2458 -5.75331 -0.369799 0.929104 0.003717
-32.0591 9.8324 -5.67402 -0.370685 0.928746 0.00485273
-32.4188 9.68257 -4.58981 -0.371816 0.928294 0.00482906
-32.4604 9.65957 -3.34733 -0.373016 0.927816 0.00402068
-32.4791 9.64585 -1.89023 -0.374228 0.927327 0.00414665
-32.452 9.65118 -0.655919 -0.375513 0.926807 0.0042194
-32.456 9.64408 0.480419 -0.376604 0.926363 0.00456704
-32.5017 9.62058 1.68364 -0.378096 0.92576 0.00337012
-32.4614 9.63381 2.79974 -0.378868 0.925448 0.00205618
-32.4382 9.64128 4.10235 -0.379975 0.924997 0.000397275
-32.4862 9.62224 5.22687 -0.379287 0.925279 -0.00065266
-31.6099 9.98166 5.66007 -0.379053 0.925373 -0.00179651
-30.5205 10.4262 5.67304 -0.376858 0.92627 -0.000968205
-29.3613 10.8961 5.71149 -0.375194 0.926946 -0.00104433
-28.0286 11.4348 5.75842 -0.373703 0.927547 -0.00138877
-26.7319 11.9559 5.69204 -0.372267 0.928123 -0.00227813
-25.5555 12.4267 5.68236 -0.370689 0.92875 -0.00346735
-24.4729 12.8572 5.67005 -0.366367 0.930445 -0.00607981
-23.3204 13.3054 5.72411 -0.358474 0.933514 -0.00627742
-22.1417 13.7523 5.73775 -0.35157 0.936102 -0.0105952
-20.9627 14.1837 5.72885 -0.330854 0.943522 -0.0173905
-19.7774 14.5959 5.75013 -0.323492 0.946065 -0.017681
-18.6302 14.9672 5.67766 -0.294597 0.955582 -0.00838319
-17.48 15.3059 5.71658 -0.262688 0.964852 -0.00206653
-16.3075 15.6071 5.70581 -0.237248 0.971445 -0.00265156
-15.5377 15.7839 5.67576 -0.212797 0.97703 -0.0111976
-15.4058 15.8362 6.73963 -0.20971 0.977367 -0.0233724
-16.5572 15.5631 6.8197 -0.249635 0.968189 -0.0169838
-17.8626 15.2127 6.75408 -0.273887 0.961138 -0.0332609
-18.996 14.8732 6.75995 -0.293516 0.955339 -0.0329883
-20.1167 14.5002 6.82794 -0.327514 0.944501 -0.0255382
-21.1874 14.1225 6.80948 -0.34534 0.938107 -0.0263637
-22.3716 13.678 6.78426 -0.357093 0.933933 -0.0159356
-23.3928 13.2856 6.78703 -0.36207 0.932118 -0.00780915
-24.6594 12.7888 6.74755 -0.369806 0.929094 -0.00530673
-25.7505 12.3516 6.75918 -0.372048 0.928211 -0.00203079
-26.8704 11.903 6.77445 -0.371619 0.928382 -0.00260405
-27.9081 11.4865 6.7958 -0.374048 0.927395 -0.00496001
-29.2165 10.9558 6.76584 -0.376026 0.926609 -0.000207196
-30.4906 10.4401 6.75421 -0.375672 0.926752 -0.00151084
-31.5526 10.0082 6.76597 -0.37914 0.925334 -0.00305017
-32.7004 9.53732 6.77057 -0.378311 0.925667 -0.00429041
-33.4491 9.22579 6.17279 -0.382738 0.923856 -0.00108105
-33.427 9.23427 4.56542 -0.382505 0.923953 0.000128395
-33.3741 9.25744 3.42476 -0.380762 0.92467 0.0023479
-33.4488 9.23072 2.33479 -0.37939 0.925228 0.00382641
-33.4467 9.23643 1.23207 -0.378707 0.925498 0.00580722
-33.4422 9.24821 -0.131462 -0.373918 0.927445 0.00550904
-33.3984 9.27113 -1.2536 -0.375508 0.926805 0.00487503
-33.4772 9.2451 -2.3448 -0.374195 0.927338 0.00477405
-33.434 9.26961 -3.71689 -0.373545 0.927599 0.00496455
-33.4319 9.27838 -4.89324 -0.371294 0.928484 0.00762054
-33.4513 9.279 -6.0236 -0.369596 0.929177 0.0053198
-32.59 9.62676 -6.78697 -0.371531 0.928405 0.00540504
-31.3432 10.1242 -6.81243 -0.369185 0.929331 0.00675866
-30.3138 10.5313 -6.81079 -0.368729 0.929535 0.00183002
-29.1857 10.9782 -6.78887 -0.366594 0.930352 0.00732093
-28.1023 11.4021 -6.79572 -0.36396 0.931414 -0.000340352
-26.8724 11.883 -6.7843 -0.362573 0.931953 -0.000510762
-25.8015 12.2996 -6.82546 -0.362533 0.931965 -0.00334553
-24.5628 12.7819 -6.81635 -0.360779 0.932651 -0.000784987
-23.4423 13.2152 -6.80997 -0.359017 0.933323 0.00380503
-22.1423 13.7033 -6.84647 -0.347889 0.937512 0.00650549
-21.1051 14.0812 -6.82897 -0.334894 0.942251 0.00300289
-19.9191 14.4973 -6.75829 -0.322879 0.946416 0.00584769
-18.8047 14.8699 -6.82371 -0.30981 0.950678 0.0138056
-17.7029 15.2162 -6.80076 -0.286937 0.95778 0.0178416
-16.6506 15.5226 -6.82456 -0.258253 0.965913 0.0167435
-15.5476 15.7969 -6.7824 -0.222868 0.974128 0.0373827
-14.1623 16.0871 -6.83079 -0.194621 0.98052 0.0265125
-12.8168 16.3146 -6.86419 -0.152788 0.988114 0.0164816
-11.7518 16.4586 -6.76226 -0.118839 0.992622 0.0237191
-10.662 16.5584 -6.80911 -0.0800604 0.996722 0.0116755
-9.42267 16.6503 -6.76992 -0.0633152 0.997863 0.0135908
-8.15997 16.7116 -6.80462 -0.0426169 0.999077 0.00536865
-6.99631 16.7523 -6.76591 -0.0213994 0.999733 0.005507
-5.91329 16.7819 -6.8055 -0.0272291 0.999628 0.00120128
-4.78473 16.8106 -6.81768 -0.0199869 0.999795 0.00173882
-3.49146 16.831 -6.79323 -0.0102987 0.999934 -0.001444
-2.30762 16.8486 -6.81555 -0.0256602 0.999479 -0.0195756
-1.19891 16.8782 -6.74446 -0.0188938 0.999798 0.006846
-0.0818978 16.9006 -6.79182 -0.0199692 0.999765 0.00843525
1.30593 16.9286 -6.74357 -0.0206692 0.999756 0.00780391
2.62432 16.9537 -6.77992 -0.0220588 0.99975 0.000389034
3.88008 16.9839 -6.78915 -0.0237623 0.999701 -0.00562846
5.01234 17.0117 -6.79952 -0.0494723 0.998423 -0.0264959
6.08941 17.0782 -6.79545 -0.0707882 0.997341 -0.0172859
7.27091 17.1661 -6.79975 -0.0809036 0.996661 -0.00944682
8.36456 17.2573 -6.76895 -0.0816403 0.996629 -0.00797919
9.64898 17.3666 -6.8005 -0.0872485 0.996143 -0.00897058
10.858 17.4829 -6.78538 -0.123108 0.991486 -0.0421623
11.9998 17.6631 -6.76856 -0.148957 0.988713 0.00206873
13.3279 17.8459 -6.84341 -0.139763 0.989817 -0.0267386
14.4028 18.0139 -6.80674 -0.167211 0.985675 -0.0219594
15.6749 18.2307 -6.82509 -0.157225 0.987429 -0.0140625
16.8198 18.4033 -6.85717 -0.131689 0.99109 0.00366261
18.2241 18.5283 -6.86062 -0.0618287 0.997602 0.0309028
19.3634 18.5878 -6.83201 -0.0484672 0.998263 0.0334934
20.7012 18.5408 -6.81509 0.0833598 0.995261 0.0491945
21.8047 18.4475 -6.79255 0.133404 0.982473 0.116175
23.0803 18.1876 -6.80252 0.223509 0.97018 0.0936342
24.2564 17.8747 -6.80571 0.38542 0.901746 0.195654
25.2387 17.4297 -6.80824 0.467658 0.86801 0.166815
26.1343 16.8156 -6.84489 0.654273 0.71551 0.234892
26.9036 15.932 -6.79946 0.801499 0.547995 0.215965
27.3042 14.847 -6.8052 0.972374 0.232221 0.0236876
27.6289 13.5837 -6.60629 0.972935 0.228596 -0.0336681
27.6744 13.4446 -5.30234 0.963372 0.26686 -0.0229577
27.7334 13.3841 -4.15298 0.941523 0.334348 -0.0417484
27.7383 13.4434 -2.93096 0.937441 0.348093 0.00563364
27.7234 13.4542 -1.65578 0.949048 0.312516 0.0285211
27.6251 13.4282 -0.417046 0.946081 0.306834 0.103846
27.5148 13.3831 0.800509 0.955222 0.283066 0.0859132
27.4233 13.3828 1.95197 0.963596 0.258598 0.0678841
27.3512 13.3826 3.07485 0.976891 0.207915 0.0495446
27.3231 13.3762 4.19641 0.97827 0.204935 0.0226027
27.3086 13.3669 5.49549 0.980049 0.198026 0.0148867
27.2673 13.4755 6.71119 0.979951 0.199148 0.0053797
27.0126 14.6029 6.73697 0.965212 0.252793 -0.0499925
26.621 15.6437 6.77825 0.873735 0.478455 -0.0832549
25.9873 16.5698 6.71246 0.777664 0.61744 -0.115921
25.1072 17.2136 6.79603 0.524099 0.850667 -0.0407972
24.1472 17.7349 6.7822 0.410147 0.911403 -0.0332613
23.006 18.1431 6.79626 0.244138 0.965889 -0.063594
21.8042 18.3641 6.77891 0.171567 0.984539 -0.0344912
20.7316 18.4999 6.77272 0.097577 0.99331 -0.0617475
19.4206 18.565 6.76551 -0.00476427 0.999513 -0.0304659
18.3154 18.5499 6.81075 -0.032475 0.999368 -0.0144722
16.8485 18.4728 6.77756 -0.0787006 0.99616 -0.0373851
15.7654 18.365 6.75371 -0.125545 0.990788 -0.0492057
14.3567 18.1525 6.81258 -0.170921 0.984364 -0.0425871
13.0816 17.9123 6.76099 -0.212159 0.976592 -0.0149857
11.6093 17.6351 6.79257 -0.17249 0.984917 0.0129362
10.314 17.4288 6.7662 -0.141678 0.989196 0.0376686
9.15473 17.2911 6.77626 -0.106555 0.99407 0.0213691
8.03565 17.1797 6.75807 -0.0952015 0.995037 0.0289581
6.93655 17.0831 6.74486 -0.0826332 0.996269 0.0248797
5.82988 17.0102 6.75771 -0.045965 0.998745 0.0198702
4.63821 16.9615 6.79527 -0.036045 0.999244 0.0142797
3.39103 16.916 6.76406 -0.0373666 0.99928 0.00662946
2.15768 16.8765 6.79013 -0.0273784 0.999586 0.00887376
0.830163 16.8453 6.76932 -0.01353 0.999675 0.020662
-0.424828 16.8275 6.7162 -0.0130696 0.999879 0.00836135
-1.69751 16.8138 6.74861 -0.00840169 0.999923 0.00902878
-2.82214 16.8047 6.76841 -0.00908738 0.999948 0.00467999
-3.95465 16.7953 6.71353 -0.0100108 0.999948 0.000849855
-5.25563 16.7691 6.77195 -0.0259351 0.999651 0.00503961
-6.67462 16.7356 6.75787 -0.0180152 0.999789 -0.00979846
-7.8487 16.7004 6.72242 -0.0363472 0.999292 -0.00951208
-8.96685 16.6524 6.72567 -0.0532581 0.998434 -0.0163687
-10.0884 16.5815 6.75992 -0.073604 0.997199 -0.0126734
-11.3143 16.4853 6.76231 -0.0926755 0.995356 -0.0228988
-12.5486 16.3283 6.77275 -0.1404 0.990047 -0.00977666
-13.6408 16.1657 6.74639 -0.156088 0.987173 -0.033329
-14.8238 15.9529 6.77554 -0.191182 0.981475 -0.0125057
-15.2181 15.8741 6.75031 -0.197596 0.98016 -0.0155292
